23.25 1.05 1.51 0.66 0.04 -0.75
24.90 1.06 3.24 0.76 0.06 -0.65
26.18 1.07 5.07 0.86 0.08 -0.51
27.08 1.06 7.00 0.94 0.07 -0.34
27.56 1.05 8.98 0.99 0.04 -0.14
27.62 1.02 10.99 1.00 -0.02 0.08
27.26 0.99 12.99 0.95 -0.11 0.28
26.47 0.96 14.93 0.87 -0.20 0.46
25.29 0.92 16.79 0.76 -0.28 0.59
23.74 0.89 18.54 0.64 -0.36 0.68
21.83 0.87 20.16 0.53 -0.42 0.73
19.61 0.85 21.62 0.44 -0.47 0.77
17.10 0.83 22.91 0.35 -0.51 0.78
14.35 0.82 24.02 0.27 -0.54 0.80
11.38 0.81 24.93 0.20 -0.56 0.80
8.25 0.80 25.62 0.14 -0.58 0.80
5.00 0.80 26.08 0.08 -0.59 0.80
1.67 0.80 26.32 0.03 -0.59 0.81
-1.67 0.80 26.32 -0.03 -0.59 0.81
-5.00 0.80 26.08 -0.08 -0.58 0.81
-8.25 0.81 25.62 -0.14 -0.57 0.81
-11.38 0.81 24.93 -0.21 -0.55 0.81
-14.35 0.82 24.03 -0.28 -0.52 0.81
-17.10 0.84 22.92 -0.35 -0.49 0.80
-19.61 0.86 21.62 -0.44 -0.45 0.78
-21.83 0.88 20.16 -0.54 -0.39 0.74
-23.74 0.90 18.54 -0.65 -0.33 0.68
-25.29 0.93 16.79 -0.76 -0.26 0.59
-26.48 0.97 14.93 -0.87 -0.17 0.46
-27.26 1.00 12.99 -0.95 -0.09 0.28
-27.62 1.03 10.99 -1.00 -0.02 0.08
-27.56 1.05 8.98 -0.99 0.03 -0.14
-27.08 1.06 7.00 -0.94 0.05 -0.34
-26.18 1.05 5.07 -0.86 0.05 -0.51
-24.90 1.05 3.24 -0.76 0.03 -0.65
-23.25 1.03 1.51 -0.66 0.00 -0.75
23.25 3.12 1.57 0.68 0.03 -0.73
24.91 3.13 3.39 0.78 0.06 -0.62
26.19 3.13 5.33 0.87 0.07 -0.49
27.08 3.13 7.36 0.94 0.06 -0.32
27.56 3.12 9.45 0.99 0.03 -0.13
27.62 3.10 11.56 1.00 -0.02 0.07
27.26 3.07 13.66 0.96 -0.09 0.27
26.48 3.04 15.71 0.88 -0.17 0.44
25.30 3.00 17.68 0.78 -0.25 0.57
23.75 2.98 19.53 0.67 -0.32 0.67
21.85 2.95 21.24 0.57 -0.38 0.73
19.62 2.93 22.79 0.47 -0.43 0.77
17.11 2.92 24.16 0.38 -0.47 0.80
14.36 2.90 25.34 0.30 -0.50 0.82
11.39 2.90 26.29 0.22 -0.52 0.82
8.26 2.89 27.02 0.16 -0.54 0.83
5.00 2.89 27.52 0.09 -0.55 0.83
1.68 2.88 27.77 0.03 -0.55 0.83
-1.68 2.88 27.77 -0.03 -0.55 0.84
-5.00 2.89 27.52 -0.09 -0.54 0.84
-8.26 2.89 27.03 -0.16 -0.53 0.84
-11.39 2.90 26.30 -0.23 -0.51 0.83
-14.36 2.91 25.34 -0.30 -0.48 0.82
-17.12 2.92 24.17 -0.38 -0.45 0.81
-19.63 2.94 22.80 -0.47 -0.40 0.78
-21.85 2.96 21.24 -0.57 -0.35 0.74
-23.75 2.99 19.53 -0.68 -0.29 0.67
-25.30 3.01 17.68 -0.79 -0.22 0.58
-26.48 3.04 15.71 -0.89 -0.15 0.44
-27.26 3.07 13.67 -0.96 -0.08 0.27
-27.62 3.10 11.56 -1.00 -0.02 0.07
-27.56 3.11 9.45 -0.99 0.02 -0.13
-27.08 3.12 7.36 -0.95 0.04 -0.32
-26.19 3.12 5.33 -0.87 0.04 -0.49
-24.91 3.11 3.39 -0.78 0.03 -0.62
-23.25 3.10 1.57 -0.68 0.00 -0.73
23.26 5.18 1.61 0.70 0.02 -0.71
24.91 5.19 3.52 0.80 0.04 -0.60
26.19 5.19 5.54 0.88 0.05 -0.47
27.08 5.19 7.66 0.95 0.04 -0.31
27.56 5.18 9.84 0.99 0.02 -0.12
27.62 5.17 12.04 1.00 -0.02 0.07
27.26 5.15 14.23 0.96 -0.07 0.26
26.49 5.12 16.37 0.90 -0.13 0.42
25.31 5.10 18.43 0.81 -0.19 0.56
23.76 5.07 20.36 0.71 -0.25 0.66
21.86 5.05 22.15 0.60 -0.30 0.74
19.64 5.04 23.78 0.51 -0.34 0.79
17.13 5.02 25.22 0.41 -0.38 0.83
14.37 5.01 26.45 0.33 -0.41 0.85
11.40 5.00 27.45 0.25 -0.43 0.87
8.26 5.00 28.22 0.17 -0.44 0.88
5.01 4.99 28.74 0.10 -0.45 0.89
1.68 4.99 29.00 0.03 -0.46 0.89
-1.68 4.99 29.00 -0.03 -0.45 0.89
-5.01 4.99 28.74 -0.10 -0.45 0.89
-8.26 5.00 28.22 -0.17 -0.43 0.88
-11.40 5.01 27.45 -0.25 -0.42 0.87
-14.37 5.02 26.45 -0.33 -0.39 0.86
-17.13 5.03 25.22 -0.42 -0.36 0.84
-19.64 5.04 23.78 -0.51 -0.32 0.80
-21.86 5.06 22.16 -0.61 -0.28 0.74
-23.76 5.08 20.36 -0.71 -0.22 0.67
-25.31 5.11 18.43 -0.81 -0.17 0.56
-26.49 5.13 16.37 -0.90 -0.11 0.42
-27.26 5.15 14.23 -0.96 -0.06 0.26
-27.62 5.17 12.04 -1.00 -0.01 0.07
-27.56 5.18 9.84 -0.99 0.02 -0.12
-27.08 5.19 7.66 -0.95 0.03 -0.31
-26.19 5.19 5.54 -0.88 0.03 -0.47
-24.91 5.18 3.52 -0.80 0.02 -0.61
-23.26 5.17 1.61 -0.70 0.00 -0.71
23.27 7.25 1.65 0.71 0.01 -0.70
24.92 7.25 3.61 0.81 0.02 -0.59
26.20 7.25 5.69 0.89 0.03 -0.46
27.08 7.25 7.87 0.95 0.03 -0.30
27.56 7.25 10.12 0.99 0.01 -0.12
27.62 7.24 12.38 1.00 -0.01 0.07
27.26 7.23 14.64 0.97 -0.04 0.25
26.49 7.21 16.84 0.91 -0.08 0.41
25.32 7.20 18.95 0.83 -0.11 0.55
23.77 7.18 20.95 0.73 -0.15 0.66
21.87 7.17 22.80 0.64 -0.18 0.75
19.65 7.16 24.48 0.54 -0.21 0.81
17.14 7.15 25.97 0.45 -0.24 0.86
14.38 7.14 27.24 0.36 -0.26 0.90
11.41 7.13 28.28 0.27 -0.28 0.92
8.27 7.13 29.07 0.19 -0.29 0.94
5.01 7.12 29.60 0.11 -0.30 0.95
1.68 7.12 29.87 0.04 -0.30 0.95
-1.68 7.12 29.87 -0.04 -0.30 0.95
-5.01 7.12 29.60 -0.11 -0.29 0.95
-8.27 7.13 29.07 -0.19 -0.28 0.94
-11.41 7.13 28.28 -0.27 -0.27 0.92
-14.38 7.14 27.24 -0.36 -0.25 0.90
-17.14 7.15 25.97 -0.45 -0.23 0.86
-19.65 7.16 24.48 -0.54 -0.20 0.82
-21.87 7.17 22.80 -0.64 -0.17 0.75
-23.77 7.19 20.95 -0.73 -0.14 0.66
-25.32 7.20 18.95 -0.83 -0.10 0.55
-26.49 7.21 16.84 -0.91 -0.07 0.41
-27.26 7.23 14.64 -0.97 -0.03 0.25
-27.62 7.24 12.38 -1.00 -0.01 0.07
-27.56 7.25 10.12 -0.99 0.01 -0.12
-27.08 7.25 7.87 -0.95 0.02 -0.30
-26.20 7.25 5.69 -0.89 0.02 -0.46
-24.92 7.25 3.61 -0.81 0.01 -0.59
-23.27 7.24 1.65 -0.71 0.00 -0.70
23.27 9.31 1.66 0.72 0.00 -0.69
24.92 9.31 3.65 0.81 0.01 -0.58
26.20 9.31 5.77 0.89 0.01 -0.45
27.08 9.31 7.98 0.96 0.01 -0.29
27.56 9.31 10.25 0.99 0.00 -0.12
27.62 9.31 12.54 1.00 -0.00 0.07
27.26 9.31 14.83 0.97 -0.01 0.24
26.49 9.30 17.06 0.91 -0.02 0.41
25.32 9.30 19.20 0.84 -0.03 0.55
23.78 9.29 21.23 0.75 -0.04 0.66
21.88 9.29 23.11 0.65 -0.05 0.75
19.66 9.29 24.82 0.56 -0.06 0.83
17.15 9.29 26.33 0.47 -0.06 0.88
14.39 9.28 27.62 0.38 -0.07 0.92
11.42 9.28 28.67 0.29 -0.07 0.95
8.28 9.28 29.48 0.20 -0.08 0.98
5.01 9.28 30.02 0.12 -0.08 0.99
1.68 9.28 30.30 0.04 -0.08 1.00
-1.68 9.28 30.30 -0.04 -0.08 1.00
-5.01 9.28 30.02 -0.12 -0.08 0.99
-8.28 9.28 29.48 -0.21 -0.08 0.98
-11.42 9.28 28.67 -0.29 -0.07 0.95
-14.39 9.28 27.62 -0.38 -0.07 0.92
-17.15 9.29 26.33 -0.47 -0.06 0.88
-19.66 9.29 24.82 -0.56 -0.05 0.83
-21.88 9.29 23.11 -0.66 -0.04 0.75
-23.78 9.30 21.23 -0.75 -0.03 0.66
-25.32 9.30 19.20 -0.84 -0.03 0.55
-26.49 9.30 17.06 -0.91 -0.02 0.41
-27.26 9.31 14.83 -0.97 -0.01 0.24
-27.62 9.31 12.54 -1.00 -0.00 0.07
-27.56 9.31 10.25 -0.99 0.00 -0.12
-27.08 9.31 7.98 -0.96 0.00 -0.29
-26.20 9.31 5.77 -0.89 0.00 -0.45
-24.92 9.31 3.65 -0.81 0.00 -0.58
-23.27 9.31 1.66 -0.72 0.00 -0.69
23.27 11.38 1.66 0.72 -0.01 -0.69
24.92 11.37 3.64 0.81 -0.01 -0.58
26.20 11.37 5.75 0.89 -0.01 -0.45
27.08 11.37 7.96 0.96 -0.01 -0.29
27.56 11.38 10.22 0.99 -0.01 -0.12
27.62 11.38 12.51 1.00 0.00 0.07
27.26 11.39 14.79 0.97 0.02 0.24
26.49 11.39 17.01 0.91 0.04 0.40
25.32 11.40 19.15 0.84 0.06 0.54
23.78 11.41 21.17 0.75 0.08 0.66
21.88 11.42 23.05 0.65 0.09 0.75
19.66 11.42 24.75 0.56 0.11 0.82
17.15 11.43 26.25 0.47 0.12 0.88
14.39 11.43 27.54 0.38 0.14 0.92
11.42 11.44 28.59 0.29 0.15 0.95
8.28 11.44 29.40 0.20 0.15 0.97
5.01 11.44 29.94 0.12 0.16 0.98
1.68 11.44 30.21 0.04 0.16 0.99
-1.68 11.44 30.21 -0.04 0.16 0.99
-5.01 11.44 29.94 -0.12 0.15 0.98
-8.28 11.44 29.40 -0.20 0.15 0.97
-11.42 11.44 28.59 -0.29 0.14 0.95
-14.39 11.43 27.54 -0.38 0.13 0.92
-17.15 11.43 26.25 -0.47 0.12 0.88
-19.66 11.42 24.75 -0.56 0.10 0.82
-21.88 11.41 23.05 -0.66 0.09 0.75
-23.78 11.41 21.17 -0.75 0.07 0.66
-25.32 11.40 19.15 -0.84 0.05 0.54
-26.49 11.39 17.01 -0.91 0.03 0.40
-27.26 11.39 14.79 -0.97 0.02 0.24
-27.62 11.38 12.51 -1.00 0.00 0.07
-27.56 11.38 10.22 -0.99 -0.01 -0.12
-27.08 11.38 7.96 -0.96 -0.01 -0.29
-26.20 11.38 5.75 -0.89 -0.01 -0.45
-24.92 11.38 3.64 -0.81 -0.01 -0.58
-23.27 11.38 1.66 -0.72 0.00 -0.69
23.27 13.44 1.64 0.72 -0.02 -0.69
24.92 13.44 3.59 0.81 -0.03 -0.58
26.20 13.43 5.65 0.89 -0.04 -0.45
27.08 13.44 7.82 0.96 -0.03 -0.29
27.56 13.44 10.04 0.99 -0.02 -0.12
27.62 13.45 12.29 1.00 0.01 0.07
27.26 13.47 14.52 0.97 0.05 0.24
26.49 13.48 16.70 0.91 0.09 0.41
25.32 13.50 18.80 0.83 0.14 0.54
23.77 13.52 20.78 0.73 0.18 0.65
21.87 13.54 22.62 0.64 0.22 0.74
19.65 13.55 24.28 0.54 0.26 0.80
17.14 13.56 25.76 0.45 0.29 0.85
14.38 13.57 27.02 0.36 0.31 0.88
11.41 13.58 28.05 0.27 0.33 0.90
8.27 13.59 28.83 0.19 0.35 0.92
5.01 13.59 29.36 0.11 0.35 0.93
1.68 13.59 29.63 0.04 0.36 0.93
-1.68 13.59 29.63 -0.04 0.36 0.93
-5.01 13.59 29.36 -0.11 0.35 0.93
-8.27 13.58 28.83 -0.19 0.34 0.92
-11.41 13.58 28.05 -0.27 0.32 0.91
-14.38 13.57 27.02 -0.36 0.30 0.88
-17.14 13.56 25.76 -0.45 0.27 0.85
-19.65 13.55 24.28 -0.54 0.24 0.80
-21.87 13.53 22.62 -0.64 0.21 0.74
-23.77 13.51 20.78 -0.74 0.17 0.66
-25.32 13.50 18.80 -0.83 0.12 0.54
-26.49 13.48 16.70 -0.91 0.08 0.41
-27.26 13.46 14.52 -0.97 0.04 0.24
-27.62 13.45 12.29 -1.00 0.01 0.07
-27.56 13.44 10.04 -0.99 -0.01 -0.12
-27.08 13.44 7.82 -0.96 -0.02 -0.29
-26.20 13.44 5.65 -0.89 -0.02 -0.45
-24.92 13.44 3.59 -0.81 -0.01 -0.58
-23.27 13.45 1.64 -0.72 0.00 -0.69
23.27 15.51 1.61 0.71 -0.03 -0.70
24.92 15.50 3.48 0.80 -0.05 -0.59
26.20 15.50 5.48 0.89 -0.05 -0.46
27.08 15.50 7.57 0.95 -0.05 -0.30
27.56 15.51 9.72 0.99 -0.02 -0.12
27.62 15.52 11.90 1.00 0.02 0.07
27.26 15.55 14.06 0.97 0.07 0.25
26.49 15.57 16.17 0.90 0.14 0.41
25.31 15.60 18.19 0.81 0.20 0.55
23.76 15.62 20.10 0.71 0.27 0.65
21.86 15.65 21.87 0.61 0.32 0.72
19.64 15.67 23.48 0.51 0.37 0.78
17.13 15.68 24.89 0.42 0.41 0.81
14.37 15.69 26.11 0.33 0.44 0.84
11.40 15.70 27.10 0.25 0.46 0.85
8.26 15.71 27.85 0.17 0.48 0.86
5.01 15.71 28.36 0.10 0.49 0.87
1.68 15.71 28.62 0.03 0.49 0.87
-1.68 15.71 28.62 -0.03 0.49 0.87
-5.01 15.71 28.36 -0.10 0.48 0.87
-8.26 15.71 27.85 -0.18 0.47 0.86
-11.40 15.70 27.10 -0.25 0.45 0.86
-14.37 15.69 26.11 -0.33 0.42 0.84
-17.13 15.67 24.90 -0.42 0.39 0.82
-19.64 15.66 23.48 -0.51 0.35 0.78
-21.86 15.64 21.87 -0.61 0.30 0.73
-23.76 15.61 20.10 -0.72 0.24 0.65
-25.31 15.59 18.19 -0.81 0.18 0.55
-26.49 15.57 16.17 -0.90 0.12 0.41
-27.26 15.54 14.06 -0.97 0.06 0.25
-27.62 15.52 11.90 -1.00 0.01 0.07
-27.56 15.51 9.72 -0.99 -0.02 -0.12
-27.08 15.50 7.57 -0.95 -0.04 -0.30
-26.20 15.50 5.48 -0.89 -0.04 -0.46
-24.92 15.51 3.48 -0.80 -0.02 -0.59
-23.27 15.52 1.61 -0.71 -0.00 -0.70
23.26 17.57 1.56 0.70 -0.03 -0.72
24.91 17.56 3.35 0.79 -0.06 -0.61
26.19 17.56 5.25 0.88 -0.07 -0.48
27.08 17.56 7.25 0.95 -0.06 -0.31
27.56 17.57 9.30 0.99 -0.03 -0.13
27.62 17.59 11.38 1.00 0.02 0.07
27.26 17.62 13.44 0.96 0.09 0.26
26.48 17.66 15.46 0.89 0.17 0.43
25.31 17.69 17.39 0.79 0.25 0.56
23.75 17.72 19.20 0.68 0.33 0.65
21.85 17.74 20.89 0.58 0.39 0.72
19.63 17.76 22.41 0.48 0.44 0.76
17.12 17.78 23.76 0.39 0.48 0.79
14.36 17.79 24.91 0.30 0.51 0.80
11.39 17.80 25.85 0.23 0.54 0.81
8.26 17.81 26.57 0.16 0.55 0.82
5.00 17.81 27.06 0.09 0.56 0.82
1.68 17.81 27.30 0.03 0.57 0.82
-1.68 17.81 27.30 -0.03 0.57 0.82
-5.00 17.81 27.06 -0.09 0.56 0.82
-8.26 17.80 26.57 -0.16 0.55 0.82
-11.39 17.80 25.86 -0.23 0.53 0.82
-14.36 17.79 24.92 -0.31 0.50 0.81
-17.12 17.77 23.76 -0.39 0.46 0.80
-19.63 17.75 22.42 -0.48 0.42 0.77
-21.85 17.73 20.89 -0.58 0.36 0.73
-23.75 17.71 19.21 -0.69 0.30 0.66
-25.31 17.68 17.39 -0.80 0.23 0.56
-26.48 17.65 15.46 -0.89 0.15 0.43
-27.26 17.62 13.44 -0.96 0.08 0.26
-27.62 17.59 11.38 -1.00 0.02 0.07
-27.56 17.58 9.30 -0.99 -0.02 -0.13
-27.08 17.57 7.25 -0.95 -0.04 -0.31
-26.19 17.57 5.25 -0.88 -0.04 -0.48
-24.91 17.58 3.35 -0.79 -0.03 -0.61
-23.26 17.59 1.56 -0.70 0.00 -0.72
23.25 19.64 1.50 0.68 -0.04 -0.74
24.90 19.63 3.19 0.77 -0.06 -0.63
26.19 19.62 4.99 0.87 -0.08 -0.50
27.08 19.63 6.88 0.94 -0.07 -0.33
27.56 19.64 8.82 0.99 -0.04 -0.13
27.62 19.66 10.79 1.00 0.02 0.07
27.26 19.70 12.74 0.96 0.10 0.27
26.48 19.73 14.65 0.88 0.19 0.44
25.30 19.77 16.47 0.77 0.28 0.57
23.74 19.80 18.18 0.66 0.36 0.66
21.84 19.82 19.77 0.55 0.42 0.72
19.62 19.84 21.21 0.45 0.47 0.76
17.11 19.86 22.48 0.36 0.51 0.78
14.35 19.87 23.56 0.28 0.54 0.79
11.38 19.88 24.45 0.21 0.57 0.80
8.25 19.89 25.12 0.15 0.58 0.80
5.00 19.89 25.58 0.09 0.59 0.80
1.67 19.89 25.81 0.03 0.60 0.80
-1.67 19.89 25.81 -0.03 0.59 0.80
-5.00 19.89 25.58 -0.09 0.59 0.80
-8.25 19.88 25.13 -0.15 0.57 0.81
-11.39 19.88 24.45 -0.21 0.55 0.80
-14.35 19.87 23.56 -0.29 0.53 0.80
-17.11 19.85 22.48 -0.37 0.49 0.79
-19.62 19.83 21.21 -0.46 0.45 0.77
-21.84 19.81 19.77 -0.56 0.39 0.73
-23.74 19.79 18.19 -0.67 0.33 0.67
-25.30 19.76 16.47 -0.78 0.25 0.58
-26.48 19.72 14.65 -0.88 0.17 0.45
-27.26 19.69 12.74 -0.96 0.09 0.27
-27.62 19.66 10.79 -1.00 0.02 0.07
-27.56 19.64 8.82 -0.99 -0.03 -0.13
-27.08 19.63 6.88 -0.94 -0.05 -0.33
-26.19 19.64 4.99 -0.87 -0.05 -0.50
-24.90 19.64 3.19 -0.77 -0.03 -0.63
-23.25 19.66 1.50 -0.68 -0.00 -0.74
23.24 21.71 1.44 0.65 -0.04 -0.76
24.90 21.70 3.03 0.75 -0.06 -0.65
26.18 21.69 4.73 0.85 -0.08 -0.52
27.08 21.70 6.50 0.94 -0.07 -0.35
27.56 21.71 8.33 0.99 -0.04 -0.14
27.62 21.73 10.19 1.00 0.02 0.08
27.26 21.77 12.03 0.95 0.11 0.29
26.47 21.80 13.83 0.86 0.20 0.47
25.29 21.84 15.54 0.75 0.28 0.60
23.73 21.87 17.15 0.64 0.35 0.68
21.83 21.89 18.64 0.53 0.42 0.74
19.61 21.91 19.99 0.43 0.47 0.77
17.10 21.93 21.18 0.35 0.50 0.79
14.35 21.94 22.20 0.27 0.53 0.80
11.38 21.95 23.03 0.20 0.56 0.81
8.25 21.95 23.66 0.14 0.57 0.81
5.00 21.96 24.09 0.08 0.58 0.81
1.67 21.96 24.31 0.03 0.58 0.81
-1.67 21.96 24.31 -0.03 0.58 0.81
-5.00 21.95 24.09 -0.08 0.57 0.81
-8.25 21.95 23.66 -0.14 0.56 0.82
-11.38 21.94 23.03 -0.20 0.54 0.82
-14.35 21.93 22.20 -0.27 0.52 0.81
-17.10 21.92 21.18 -0.35 0.48 0.80
-19.61 21.90 19.99 -0.44 0.44 0.78
-21.83 21.88 18.64 -0.54 0.39 0.75
-23.74 21.85 17.15 -0.64 0.33 0.69
-25.29 21.83 15.54 -0.76 0.25 0.60
-26.47 21.79 13.83 -0.87 0.17 0.47
-27.26 21.76 12.03 -0.95 0.09 0.29
-27.62 21.73 10.19 -1.00 0.02 0.08
-27.56 21.71 8.33 -0.99 -0.03 -0.14
-27.08 21.70 6.50 -0.94 -0.05 -0.35
-26.18 21.70 4.72 -0.85 -0.05 -0.52
-24.90 21.71 3.03 -0.75 -0.03 -0.66
-23.24 21.72 1.44 -0.65 0.00 -0.76
23.23 23.78 1.39 0.63 -0.03 -0.78
24.89 23.77 2.88 0.73 -0.06 -0.68
26.18 23.77 4.48 0.84 -0.07 -0.54
27.07 23.77 6.16 0.93 -0.06 -0.37
27.56 23.78 7.89 0.99 -0.03 -0.15
27.62 23.80 9.64 1.00 0.02 0.08
27.25 23.83 11.39 0.95 0.10 0.31
26.47 23.86 13.08 0.85 0.18 0.49
25.28 23.89 14.69 0.74 0.25 0.62
23.73 23.92 16.21 0.62 0.32 0.71
21.82 23.94 17.61 0.52 0.37 0.77
19.60 23.96 18.88 0.42 0.42 0.81
17.10 23.97 20.00 0.34 0.45 0.83
14.34 23.98 20.96 0.26 0.48 0.84
11.38 23.99 21.74 0.20 0.50 0.84
8.25 24.00 22.34 0.14 0.51 0.85
5.00 24.00 22.74 0.08 0.52 0.85
1.67 24.00 22.94 0.03 0.52 0.85
-1.67 24.00 22.95 -0.03 0.52 0.85
-5.00 24.00 22.74 -0.08 0.52 0.85
-8.25 23.99 22.34 -0.14 0.50 0.85
-11.38 23.99 21.74 -0.20 0.49 0.85
-14.34 23.98 20.96 -0.27 0.46 0.85
-17.10 23.97 20.00 -0.34 0.43 0.83
-19.61 23.95 18.88 -0.43 0.39 0.81
-21.83 23.93 17.62 -0.52 0.35 0.78
-23.73 23.91 16.21 -0.63 0.29 0.72
-25.29 23.88 14.70 -0.74 0.23 0.63
-26.47 23.86 13.08 -0.86 0.16 0.49
-27.25 23.83 11.39 -0.95 0.08 0.31
-27.62 23.80 9.64 -1.00 0.02 0.08
-27.56 23.78 7.89 -0.99 -0.03 -0.15
-27.07 23.77 6.16 -0.93 -0.05 -0.37
-26.18 23.78 4.48 -0.84 -0.05 -0.54
-24.89 23.78 2.88 -0.73 -0.03 -0.68
-23.23 23.79 1.39 -0.63 0.00 -0.78
23.22 25.85 1.35 0.61 -0.02 -0.80
24.88 25.85 2.77 0.71 -0.04 -0.70
26.17 25.84 4.28 0.82 -0.05 -0.57
27.07 25.84 5.88 0.92 -0.05 -0.39
27.56 25.85 7.53 0.99 -0.03 -0.16
27.62 25.87 9.21 1.00 0.02 0.09
27.25 25.89 10.87 0.94 0.08 0.33
26.47 25.92 12.48 0.85 0.14 0.52
25.28 25.94 14.02 0.73 0.19 0.65
23.73 25.96 15.46 0.62 0.24 0.75
21.82 25.98 16.80 0.51 0.29 0.81
19.60 25.99 18.00 0.42 0.32 0.85
17.10 26.00 19.07 0.34 0.35 0.87
14.34 26.01 19.98 0.26 0.37 0.89
11.38 26.02 20.72 0.20 0.39 0.90
8.25 26.02 21.29 0.14 0.40 0.91
5.00 26.03 21.67 0.08 0.41 0.91
1.67 26.03 21.87 0.03 0.41 0.91
-1.67 26.03 21.87 -0.03 0.41 0.91
-5.00 26.02 21.68 -0.08 0.40 0.91
-8.25 26.02 21.29 -0.14 0.39 0.91
-11.38 26.01 20.73 -0.20 0.38 0.90
-14.34 26.01 19.98 -0.27 0.36 0.90
-17.10 26.00 19.07 -0.34 0.33 0.88
-19.60 25.98 18.00 -0.42 0.30 0.85
-21.82 25.97 16.80 -0.52 0.27 0.82
-23.73 25.95 15.47 -0.62 0.22 0.75
-25.28 25.93 14.02 -0.73 0.17 0.66
-26.47 25.91 12.48 -0.85 0.12 0.52
-27.25 25.89 10.87 -0.94 0.06 0.33
-27.62 25.87 9.21 -1.00 0.01 0.09
-27.56 25.85 7.53 -0.99 -0.02 -0.16
-27.07 25.85 5.88 -0.92 -0.04 -0.39
-26.17 25.85 4.28 -0.82 -0.03 -0.57
-24.88 25.85 2.77 -0.71 -0.02 -0.70
-23.22 25.86 1.35 -0.61 -0.00 -0.80
23.22 27.93 1.32 0.59 -0.01 -0.81
24.87 27.92 2.69 0.70 -0.02 -0.72
26.17 27.92 4.15 0.81 -0.03 -0.59
27.07 27.92 5.70 0.92 -0.03 -0.40
27.56 27.93 7.30 0.99 -0.01 -0.17
27.62 27.93 8.93 1.00 0.01 0.09
27.25 27.95 10.54 0.94 0.04 0.34
26.46 27.96 12.10 0.84 0.07 0.54
25.28 27.97 13.59 0.73 0.11 0.68
23.72 27.98 14.99 0.61 0.13 0.78
21.82 27.99 16.27 0.51 0.16 0.85
19.60 28.00 17.44 0.42 0.18 0.89
17.10 28.01 18.47 0.34 0.19 0.92
14.34 28.01 19.35 0.27 0.21 0.94
11.38 28.02 20.07 0.20 0.22 0.95
8.25 28.02 20.62 0.14 0.23 0.96
5.00 28.02 20.99 0.08 0.23 0.97
1.67 28.02 21.18 0.03 0.23 0.97
-1.67 28.02 21.18 -0.03 0.23 0.97
-5.00 28.02 20.99 -0.08 0.23 0.97
-8.25 28.02 20.62 -0.14 0.22 0.97
-11.38 28.02 20.07 -0.20 0.21 0.96
-14.34 28.01 19.35 -0.27 0.20 0.94
-17.10 28.00 18.47 -0.34 0.18 0.92
-19.60 28.00 17.44 -0.42 0.17 0.89
-21.82 27.99 16.27 -0.51 0.15 0.85
-23.72 27.98 14.99 -0.61 0.12 0.78
-25.28 27.97 13.59 -0.73 0.09 0.68
-26.46 27.96 12.10 -0.84 0.07 0.54
-27.25 27.95 10.54 -0.94 0.04 0.34
-27.62 27.93 8.93 -1.00 0.01 0.09
-27.56 27.93 7.30 -0.99 -0.01 -0.17
-27.07 27.92 5.70 -0.92 -0.02 -0.40
-26.17 27.92 4.15 -0.81 -0.02 -0.59
-24.87 27.93 2.69 -0.70 -0.01 -0.72
-23.22 27.93 1.32 -0.59 0.00 -0.81
23.21 30.00 1.31 0.58 0.00 -0.82
24.87 30.00 2.66 0.69 0.00 -0.73
26.16 30.00 4.11 0.80 0.00 -0.59
27.07 30.00 5.63 0.91 0.00 -0.41
27.56 30.00 7.22 0.99 0.00 -0.17
27.62 30.00 8.83 1.00 0.00 0.10
27.25 30.00 10.42 0.94 0.00 0.35
26.46 30.00 11.97 0.84 0.00 0.55
25.28 30.00 13.44 0.72 0.00 0.69
23.72 30.00 14.82 0.61 0.00 0.79
21.82 30.00 16.10 0.51 0.00 0.86
19.60 30.00 17.25 0.42 0.00 0.91
17.10 30.00 18.27 0.34 0.00 0.94
14.34 30.00 19.14 0.27 0.00 0.96
11.38 30.00 19.85 0.20 0.00 0.98
8.25 30.00 20.40 0.14 0.00 0.99
5.00 30.00 20.76 0.08 0.00 1.00
1.67 30.00 20.95 0.03 0.00 1.00
-1.67 30.00 20.95 -0.03 0.00 1.00
-5.00 30.00 20.76 -0.08 0.00 1.00
-8.25 30.00 20.40 -0.14 0.00 0.99
-11.38 30.00 19.85 -0.20 0.00 0.98
-14.34 30.00 19.14 -0.27 0.00 0.96
-17.10 30.00 18.27 -0.34 0.00 0.94
-19.60 30.00 17.25 -0.42 0.00 0.91
-21.82 30.00 16.10 -0.51 0.00 0.86
-23.72 30.00 14.82 -0.61 0.00 0.79
-25.28 30.00 13.44 -0.72 0.00 0.69
-26.46 30.00 11.97 -0.84 0.00 0.55
-27.25 30.00 10.42 -0.94 0.00 0.35
-27.62 30.00 8.83 -1.00 0.00 0.10
-27.56 30.00 7.22 -0.99 0.00 -0.17
-27.07 30.00 5.63 -0.91 0.00 -0.41
-26.16 30.00 4.11 -0.80 0.00 -0.59
-24.87 30.00 2.66 -0.69 0.00 -0.73
-23.21 30.00 1.31 -0.58 0.00 -0.82
23.21 32.07 1.32 0.58 0.01 -0.82
24.87 32.08 2.68 0.69 0.02 -0.73
26.16 32.08 4.15 0.80 0.03 -0.59
27.07 32.08 5.69 0.91 0.03 -0.41
27.56 32.07 7.30 0.99 0.01 -0.17
27.62 32.06 8.93 1.00 -0.01 0.10
27.25 32.05 10.54 0.94 -0.04 0.35
26.46 32.04 12.10 0.83 -0.08 0.55
25.28 32.03 13.59 0.72 -0.11 0.69
23.72 32.01 14.99 0.60 -0.14 0.79
21.82 32.01 16.28 0.50 -0.16 0.85
19.60 32.00 17.44 0.41 -0.18 0.89
17.10 31.99 18.47 0.33 -0.19 0.92
14.34 31.99 19.35 0.26 -0.21 0.94
11.38 31.98 20.07 0.20 -0.22 0.96
8.25 31.98 20.62 0.14 -0.23 0.96
5.00 31.98 20.99 0.08 -0.23 0.97
1.67 31.98 21.18 0.03 -0.23 0.97
-1.67 31.98 21.18 -0.03 -0.23 0.97
-5.00 31.98 20.99 -0.08 -0.23 0.97
-8.25 31.98 20.62 -0.14 -0.22 0.97
-11.38 31.98 20.08 -0.20 -0.21 0.96
-14.34 31.99 19.36 -0.26 -0.20 0.94
-17.10 32.00 18.47 -0.33 -0.18 0.92
-19.60 32.00 17.44 -0.41 -0.17 0.90
-21.82 32.01 16.28 -0.50 -0.15 0.85
-23.72 32.02 14.99 -0.60 -0.12 0.79
-25.28 32.03 13.59 -0.72 -0.10 0.69
-26.46 32.04 12.10 -0.83 -0.07 0.55
-27.25 32.05 10.54 -0.94 -0.04 0.35
-27.62 32.07 8.93 -1.00 -0.01 0.10
-27.56 32.07 7.30 -0.99 0.01 -0.17
-27.07 32.08 5.69 -0.91 0.02 -0.41
-26.16 32.08 4.15 -0.80 0.02 -0.59
-24.87 32.07 2.68 -0.69 0.01 -0.73
-23.21 32.07 1.32 -0.58 0.00 -0.82
23.22 34.15 1.34 0.59 0.02 -0.81
24.87 34.16 2.76 0.70 0.04 -0.72
26.16 34.16 4.27 0.81 0.05 -0.58
27.07 34.16 5.87 0.91 0.05 -0.40
27.56 34.15 7.53 0.99 0.03 -0.17
27.62 34.13 9.21 1.00 -0.02 0.09
27.25 34.11 10.88 0.94 -0.08 0.34
26.46 34.08 12.49 0.83 -0.14 0.53
25.27 34.06 14.03 0.71 -0.20 0.67
23.72 34.04 15.47 0.60 -0.25 0.76
21.82 34.02 16.80 0.49 -0.29 0.82
19.60 34.01 18.01 0.40 -0.32 0.86
17.09 34.00 19.07 0.32 -0.35 0.88
14.34 33.99 19.98 0.25 -0.37 0.89
11.38 33.98 20.72 0.19 -0.39 0.90
8.25 33.98 21.29 0.13 -0.40 0.91
5.00 33.97 21.67 0.08 -0.41 0.91
1.67 33.97 21.87 0.03 -0.41 0.91
-1.67 33.97 21.87 -0.03 -0.41 0.91
-5.00 33.98 21.68 -0.08 -0.40 0.91
-8.25 33.98 21.29 -0.13 -0.39 0.91
-11.38 33.99 20.73 -0.19 -0.38 0.91
-14.34 33.99 19.98 -0.25 -0.36 0.90
-17.09 34.00 19.07 -0.33 -0.33 0.88
-19.60 34.02 18.01 -0.41 -0.30 0.86
-21.82 34.03 16.80 -0.50 -0.27 0.82
-23.72 34.05 15.47 -0.60 -0.23 0.77
-25.28 34.07 14.03 -0.72 -0.18 0.67
-26.46 34.09 12.49 -0.84 -0.12 0.53
-27.25 34.11 10.88 -0.94 -0.07 0.34
-27.62 34.13 9.21 -1.00 -0.02 0.09
-27.56 34.15 7.53 -0.99 0.02 -0.17
-27.07 34.15 5.87 -0.91 0.04 -0.40
-26.17 34.15 4.27 -0.81 0.04 -0.59
-24.87 34.15 2.76 -0.70 0.02 -0.72
-23.22 34.14 1.34 -0.59 0.00 -0.81
23.22 36.22 1.38 0.61 0.03 -0.80
24.88 36.23 2.88 0.71 0.06 -0.70
26.17 36.24 4.47 0.82 0.07 -0.57
27.07 36.23 6.15 0.92 0.07 -0.39
27.56 36.22 7.88 0.99 0.04 -0.16
27.62 36.20 9.65 1.00 -0.02 0.09
27.25 36.17 11.39 0.94 -0.10 0.32
26.46 36.13 13.09 0.84 -0.18 0.51
25.28 36.10 14.70 0.72 -0.26 0.64
23.72 36.08 16.22 0.60 -0.33 0.73
21.82 36.06 17.62 0.49 -0.38 0.78
19.60 36.04 18.88 0.40 -0.42 0.81
17.09 36.03 20.00 0.32 -0.45 0.83
14.34 36.01 20.96 0.25 -0.48 0.84
11.37 36.01 21.74 0.19 -0.50 0.85
8.25 36.00 22.34 0.13 -0.51 0.85
5.00 36.00 22.74 0.08 -0.52 0.85
1.67 36.00 22.94 0.03 -0.52 0.85
-1.67 36.00 22.95 -0.03 -0.52 0.85
-5.00 36.00 22.74 -0.08 -0.52 0.85
-8.25 36.01 22.34 -0.13 -0.50 0.85
-11.38 36.01 21.75 -0.19 -0.49 0.85
-14.34 36.02 20.96 -0.25 -0.46 0.85
-17.09 36.03 20.01 -0.32 -0.43 0.84
-19.60 36.05 18.89 -0.41 -0.40 0.82
-21.82 36.07 17.62 -0.50 -0.35 0.79
-23.72 36.09 16.22 -0.61 -0.30 0.74
-25.28 36.11 14.70 -0.72 -0.23 0.65
-26.46 36.14 13.09 -0.84 -0.16 0.51
-27.25 36.17 11.39 -0.94 -0.09 0.32
-27.62 36.20 9.65 -1.00 -0.02 0.09
-27.56 36.22 7.88 -0.99 0.03 -0.16
-27.07 36.23 6.15 -0.92 0.05 -0.39
-26.17 36.23 4.47 -0.82 0.05 -0.57
-24.88 36.22 2.88 -0.71 0.03 -0.70
-23.22 36.21 1.38 -0.61 0.00 -0.80
23.23 38.29 1.44 0.63 0.04 -0.78
24.89 38.30 3.02 0.73 0.07 -0.68
26.18 38.31 4.72 0.84 0.08 -0.54
27.07 38.31 6.49 0.93 0.07 -0.37
27.56 38.29 8.33 0.99 0.04 -0.15
27.62 38.27 10.19 1.00 -0.03 0.08
27.25 38.23 12.04 0.94 -0.11 0.31
26.47 38.19 13.84 0.85 -0.21 0.49
25.28 38.16 15.55 0.73 -0.29 0.62
23.72 38.13 17.16 0.61 -0.36 0.70
21.82 38.11 18.64 0.50 -0.42 0.75
19.60 38.09 19.99 0.41 -0.47 0.78
17.09 38.07 21.18 0.33 -0.51 0.80
14.34 38.06 22.20 0.25 -0.54 0.81
11.38 38.05 23.03 0.19 -0.56 0.81
8.25 38.05 23.66 0.13 -0.57 0.81
5.00 38.04 24.09 0.08 -0.58 0.81
1.67 38.04 24.31 0.03 -0.58 0.81
-1.67 38.04 24.31 -0.03 -0.58 0.81
-5.00 38.05 24.09 -0.08 -0.57 0.82
-8.25 38.05 23.66 -0.13 -0.56 0.82
-11.38 38.06 23.03 -0.19 -0.54 0.82
-14.34 38.07 22.20 -0.26 -0.52 0.82
-17.10 38.08 21.18 -0.33 -0.49 0.81
-19.60 38.10 19.99 -0.42 -0.45 0.79
-21.82 38.12 18.65 -0.51 -0.40 0.76
-23.73 38.14 17.16 -0.62 -0.33 0.71
-25.28 38.17 15.55 -0.74 -0.26 0.62
-26.47 38.20 13.84 -0.85 -0.18 0.49
-27.25 38.24 12.04 -0.95 -0.10 0.31
-27.62 38.27 10.19 -1.00 -0.02 0.08
-27.56 38.29 8.33 -0.99 0.03 -0.15
-27.07 38.30 6.49 -0.93 0.05 -0.37
-26.18 38.30 4.71 -0.84 0.05 -0.54
-24.89 38.29 3.02 -0.73 0.03 -0.68
-23.23 38.28 1.44 -0.63 0.00 -0.78
23.24 40.36 1.49 0.65 0.04 -0.76
24.90 40.37 3.18 0.75 0.07 -0.65
26.18 40.38 4.98 0.85 0.08 -0.52
27.08 40.37 6.87 0.94 0.07 -0.35
27.56 40.36 8.82 0.99 0.04 -0.14
27.62 40.33 10.79 1.00 -0.03 0.08
27.26 40.30 12.75 0.95 -0.11 0.29
26.47 40.26 14.66 0.86 -0.20 0.47
25.29 40.23 16.48 0.75 -0.29 0.59
23.73 40.20 18.19 0.63 -0.37 0.68
21.83 40.17 19.78 0.53 -0.43 0.74
19.61 40.15 21.21 0.43 -0.48 0.77
17.10 40.14 22.48 0.34 -0.52 0.78
14.34 40.13 23.56 0.27 -0.55 0.79
11.38 40.12 24.45 0.20 -0.57 0.80
8.25 40.11 25.12 0.14 -0.58 0.80
5.00 40.11 25.58 0.08 -0.59 0.80
1.67 40.11 25.81 0.03 -0.60 0.80
-1.67 40.11 25.81 -0.03 -0.59 0.80
-5.00 40.11 25.58 -0.08 -0.59 0.81
-8.25 40.11 25.13 -0.14 -0.57 0.81
-11.38 40.12 24.45 -0.20 -0.56 0.81
-14.35 40.13 23.57 -0.27 -0.53 0.80
-17.10 40.15 22.48 -0.35 -0.50 0.80
-19.61 40.16 21.21 -0.43 -0.45 0.78
-21.83 40.18 19.78 -0.53 -0.40 0.75
-23.74 40.21 18.20 -0.64 -0.34 0.69
-25.29 40.24 16.48 -0.76 -0.26 0.60
-26.47 40.27 14.66 -0.87 -0.18 0.47
-27.26 40.31 12.75 -0.95 -0.09 0.29
-27.62 40.34 10.79 -1.00 -0.02 0.08
-27.56 40.36 8.82 -0.99 0.03 -0.14
-27.08 40.37 6.87 -0.94 0.05 -0.35
-26.18 40.37 4.98 -0.85 0.05 -0.52
-24.90 40.36 3.18 -0.75 0.03 -0.66
-23.24 40.34 1.49 -0.65 0.00 -0.76
23.25 42.43 1.55 0.68 0.03 -0.74
24.90 42.44 3.34 0.77 0.06 -0.63
26.19 42.44 5.25 0.87 0.07 -0.50
27.08 42.44 7.24 0.94 0.06 -0.33
27.56 42.43 9.30 0.99 0.03 -0.13
27.62 42.40 11.38 1.00 -0.02 0.07
27.26 42.37 13.45 0.96 -0.10 0.27
26.48 42.34 15.46 0.88 -0.18 0.44
25.30 42.31 17.39 0.77 -0.26 0.58
23.74 42.28 19.21 0.66 -0.33 0.67
21.84 42.26 20.89 0.56 -0.40 0.73
19.62 42.24 22.42 0.46 -0.45 0.77
17.11 42.22 23.76 0.37 -0.49 0.79
14.35 42.21 24.91 0.29 -0.52 0.81
11.39 42.20 25.85 0.22 -0.54 0.81
8.25 42.19 26.57 0.15 -0.56 0.82
5.00 42.19 27.06 0.09 -0.57 0.82
1.68 42.19 27.30 0.03 -0.57 0.82
-1.68 42.19 27.30 -0.03 -0.57 0.82
-5.00 42.19 27.06 -0.09 -0.56 0.82
-8.25 42.20 26.57 -0.15 -0.55 0.82
-11.39 42.20 25.86 -0.22 -0.53 0.82
-14.35 42.21 24.92 -0.29 -0.50 0.82
-17.11 42.23 23.77 -0.37 -0.47 0.80
-19.62 42.24 22.42 -0.46 -0.42 0.78
-21.84 42.27 20.90 -0.56 -0.37 0.74
-23.75 42.29 19.21 -0.67 -0.31 0.68
-25.30 42.32 17.39 -0.78 -0.24 0.58
-26.48 42.35 15.46 -0.88 -0.16 0.45
-27.26 42.38 13.45 -0.96 -0.08 0.27
-27.62 42.41 11.38 -1.00 -0.02 0.07
-27.56 42.42 9.30 -0.99 0.03 -0.13
-27.08 42.43 7.24 -0.94 0.05 -0.33
-26.19 42.43 5.25 -0.87 0.05 -0.50
-24.90 42.43 3.34 -0.77 0.03 -0.63
-23.25 42.41 1.55 -0.68 0.00 -0.74
23.26 44.49 1.60 0.70 0.03 -0.72
24.91 44.50 3.48 0.79 0.05 -0.61
26.19 44.51 5.48 0.88 0.06 -0.48
27.08 44.50 7.57 0.95 0.05 -0.31
27.56 44.49 9.72 0.99 0.03 -0.13
27.62 44.48 11.90 1.00 -0.02 0.07
27.26 44.45 14.06 0.96 -0.08 0.26
26.48 44.43 16.17 0.89 -0.14 0.43
25.31 44.40 18.20 0.80 -0.21 0.56
23.76 44.37 20.11 0.70 -0.27 0.66
21.86 44.35 21.88 0.59 -0.33 0.74
19.63 44.33 23.48 0.49 -0.37 0.79
17.12 44.32 24.90 0.40 -0.41 0.82
14.36 44.31 26.11 0.32 -0.44 0.84
11.40 44.30 27.10 0.24 -0.46 0.85
8.26 44.29 27.85 0.17 -0.48 0.86
5.01 44.29 28.36 0.10 -0.49 0.87
1.68 44.29 28.62 0.03 -0.49 0.87
-1.68 44.29 28.62 -0.03 -0.49 0.87
-5.01 44.29 28.36 -0.10 -0.48 0.87
-8.26 44.29 27.86 -0.17 -0.47 0.87
-11.40 44.30 27.10 -0.24 -0.45 0.86
-14.37 44.31 26.11 -0.32 -0.43 0.85
-17.13 44.33 24.90 -0.41 -0.39 0.83
-19.63 44.34 23.48 -0.50 -0.35 0.79
-21.86 44.36 21.88 -0.60 -0.30 0.74
-23.76 44.38 20.11 -0.70 -0.25 0.67
-25.31 44.41 18.20 -0.80 -0.19 0.57
-26.48 44.43 16.17 -0.89 -0.12 0.43
-27.26 44.46 14.06 -0.96 -0.06 0.26
-27.62 44.48 11.90 -1.00 -0.01 0.07
-27.56 44.49 9.72 -0.99 0.02 -0.13
-27.08 44.50 7.57 -0.95 0.04 -0.31
-26.19 44.50 5.48 -0.88 0.04 -0.48
-24.91 44.49 3.48 -0.79 0.02 -0.61
-23.26 44.48 1.60 -0.70 0.00 -0.72
23.27 46.56 1.64 0.71 0.02 -0.70
24.92 46.56 3.58 0.80 0.03 -0.59
26.20 46.57 5.65 0.89 0.04 -0.46
27.08 46.56 7.81 0.95 0.03 -0.30
27.56 46.56 10.04 0.99 0.02 -0.12
27.62 46.55 12.29 1.00 -0.01 0.07
27.26 46.53 14.52 0.97 -0.05 0.25
26.49 46.51 16.71 0.90 -0.09 0.42
25.32 46.50 18.80 0.82 -0.14 0.55
23.77 46.48 20.79 0.73 -0.18 0.66
21.87 46.46 22.62 0.63 -0.22 0.75
19.65 46.45 24.29 0.53 -0.26 0.81
17.14 46.44 25.76 0.44 -0.29 0.85
14.38 46.43 27.02 0.35 -0.31 0.88
11.41 46.42 28.05 0.27 -0.33 0.90
8.27 46.41 28.83 0.19 -0.35 0.92
5.01 46.41 29.36 0.11 -0.35 0.93
1.68 46.41 29.63 0.04 -0.36 0.93
-1.68 46.41 29.63 -0.04 -0.36 0.93
-5.01 46.41 29.36 -0.11 -0.35 0.93
-8.27 46.42 28.83 -0.19 -0.34 0.92
-11.41 46.42 28.05 -0.27 -0.32 0.91
-14.38 46.43 27.02 -0.35 -0.30 0.89
-17.14 46.44 25.76 -0.44 -0.28 0.86
-19.65 46.45 24.29 -0.53 -0.24 0.81
-21.87 46.47 22.62 -0.63 -0.21 0.75
-23.77 46.48 20.79 -0.73 -0.17 0.67
-25.32 46.50 18.81 -0.82 -0.12 0.56
-26.49 46.52 16.71 -0.91 -0.08 0.42
-27.26 46.53 14.52 -0.97 -0.04 0.25
-27.62 46.55 12.29 -1.00 -0.01 0.07
-27.56 46.56 10.04 -0.99 0.01 -0.12
-27.08 46.56 7.81 -0.95 0.02 -0.30
-26.20 46.56 5.65 -0.89 0.02 -0.46
-24.92 46.56 3.58 -0.80 0.01 -0.59
-23.27 46.55 1.64 -0.71 0.00 -0.70
23.27 48.62 1.66 0.72 0.01 -0.69
24.92 48.63 3.64 0.81 0.01 -0.58
26.20 48.63 5.75 0.89 0.01 -0.45
27.08 48.63 7.96 0.96 0.01 -0.29
27.56 48.62 10.22 0.99 0.01 -0.12
27.62 48.62 12.51 1.00 -0.00 0.07
27.26 48.61 14.79 0.97 -0.02 0.24
26.49 48.61 17.01 0.91 -0.04 0.41
25.32 48.60 19.15 0.83 -0.06 0.55
23.78 48.59 21.17 0.75 -0.08 0.66
21.88 48.58 23.05 0.65 -0.09 0.75
19.66 48.58 24.75 0.56 -0.11 0.82
17.15 48.57 26.25 0.46 -0.12 0.88
14.39 48.57 27.54 0.37 -0.14 0.92
11.41 48.56 28.59 0.29 -0.15 0.95
8.27 48.56 29.40 0.20 -0.15 0.97
5.01 48.56 29.94 0.12 -0.16 0.98
1.68 48.56 30.21 0.04 -0.16 0.99
-1.68 48.56 30.21 -0.04 -0.16 0.99
-5.01 48.56 29.94 -0.12 -0.15 0.98
-8.27 48.56 29.40 -0.20 -0.15 0.97
-11.41 48.56 28.59 -0.29 -0.14 0.95
-14.39 48.57 27.54 -0.37 -0.13 0.92
-17.15 48.57 26.25 -0.46 -0.12 0.88
-19.66 48.58 24.75 -0.56 -0.10 0.82
-21.88 48.59 23.05 -0.65 -0.09 0.75
-23.78 48.59 21.17 -0.75 -0.07 0.66
-25.32 48.60 19.15 -0.83 -0.05 0.55
-26.49 48.61 17.01 -0.91 -0.03 0.41
-27.26 48.61 14.79 -0.97 -0.02 0.24
-27.62 48.62 12.51 -1.00 -0.00 0.07
-27.56 48.62 10.22 -0.99 0.01 -0.12
-27.08 48.62 7.96 -0.96 0.01 -0.29
-26.20 48.62 5.75 -0.89 0.01 -0.45
-24.92 48.62 3.64 -0.81 0.01 -0.58
-23.27 48.62 1.66 -0.72 0.00 -0.69
23.27 50.69 1.66 0.72 -0.00 -0.69
24.92 50.69 3.65 0.81 -0.01 -0.58
26.20 50.69 5.77 0.89 -0.01 -0.45
27.08 50.69 7.98 0.96 -0.01 -0.29
27.56 50.69 10.25 0.99 -0.00 -0.12
27.62 50.69 12.54 1.00 0.00 0.07
27.26 50.69 14.83 0.97 0.01 0.24
26.49 50.70 17.06 0.91 0.02 0.40
25.32 50.70 19.20 0.84 0.03 0.54
23.78 50.71 21.23 0.75 0.04 0.66
21.88 50.71 23.11 0.66 0.05 0.75
19.66 50.71 24.82 0.56 0.06 0.82
17.15 50.71 26.33 0.47 0.06 0.88
14.39 50.72 27.62 0.38 0.07 0.92
11.42 50.72 28.67 0.29 0.07 0.95
8.28 50.72 29.48 0.21 0.08 0.98
5.01 50.72 30.02 0.12 0.08 0.99
1.68 50.72 30.30 0.04 0.08 1.00
-1.68 50.72 30.30 -0.04 0.08 1.00
-5.01 50.72 30.02 -0.12 0.08 0.99
-8.28 50.72 29.48 -0.21 0.08 0.98
-11.42 50.72 28.67 -0.29 0.07 0.95
-14.39 50.72 27.62 -0.38 0.07 0.92
-17.15 50.71 26.33 -0.47 0.06 0.88
-19.66 50.71 24.82 -0.56 0.05 0.83
-21.88 50.71 23.11 -0.66 0.04 0.75
-23.78 50.70 21.23 -0.75 0.03 0.66
-25.32 50.70 19.20 -0.84 0.03 0.54
-26.49 50.70 17.06 -0.91 0.02 0.40
-27.26 50.69 14.83 -0.97 0.01 0.24
-27.62 50.69 12.54 -1.00 0.00 0.07
-27.56 50.69 10.25 -0.99 -0.00 -0.12
-27.08 50.69 7.98 -0.96 -0.00 -0.29
-26.20 50.69 5.77 -0.89 -0.00 -0.45
-24.92 50.69 3.65 -0.81 -0.00 -0.58
-23.27 50.69 1.66 -0.72 0.00 -0.69
23.27 52.75 1.65 0.72 -0.01 -0.69
24.92 52.75 3.61 0.81 -0.02 -0.58
26.20 52.75 5.70 0.89 -0.03 -0.45
27.08 52.75 7.88 0.96 -0.03 -0.29
27.56 52.75 10.12 0.99 -0.01 -0.12
27.62 52.76 12.38 1.00 0.01 0.07
27.26 52.77 14.63 0.97 0.04 0.24
26.49 52.79 16.83 0.91 0.07 0.41
25.32 52.80 18.95 0.83 0.11 0.54
23.77 52.82 20.95 0.74 0.15 0.66
21.88 52.83 22.80 0.64 0.18 0.74
19.65 52.84 24.48 0.55 0.21 0.81
17.14 52.85 25.97 0.45 0.24 0.86
14.38 52.86 27.24 0.37 0.26 0.89
11.41 52.87 28.28 0.28 0.28 0.92
8.27 52.87 29.07 0.20 0.29 0.94
5.01 52.88 29.60 0.12 0.30 0.95
1.68 52.88 29.87 0.04 0.30 0.95
-1.68 52.88 29.87 -0.04 0.30 0.95
-5.01 52.88 29.60 -0.12 0.29 0.95
-8.27 52.87 29.07 -0.20 0.28 0.94
-11.41 52.87 28.28 -0.28 0.27 0.92
-14.38 52.86 27.24 -0.37 0.25 0.90
-17.15 52.85 25.97 -0.46 0.23 0.86
-19.66 52.84 24.48 -0.55 0.20 0.81
-21.88 52.83 22.80 -0.65 0.17 0.74
-23.78 52.81 20.95 -0.74 0.13 0.66
-25.32 52.80 18.95 -0.83 0.10 0.54
-26.49 52.78 16.83 -0.91 0.06 0.41
-27.26 52.77 14.63 -0.97 0.03 0.24
-27.62 52.76 12.38 -1.00 0.01 0.07
-27.56 52.75 10.12 -0.99 -0.01 -0.12
-27.08 52.75 7.88 -0.96 -0.02 -0.29
-26.20 52.75 5.70 -0.89 -0.02 -0.45
-24.92 52.75 3.61 -0.81 -0.01 -0.58
-23.27 52.76 1.65 -0.72 0.00 -0.69
23.27 54.82 1.62 0.71 -0.02 -0.70
24.92 54.81 3.52 0.81 -0.04 -0.59
26.20 54.81 5.55 0.89 -0.05 -0.46
27.08 54.81 7.66 0.95 -0.04 -0.30
27.56 54.82 9.84 0.99 -0.02 -0.12
27.62 54.83 12.04 1.00 0.01 0.07
27.26 54.85 14.23 0.97 0.07 0.25
26.49 54.88 16.37 0.90 0.12 0.41
25.32 54.90 18.42 0.82 0.18 0.55
23.77 54.92 20.36 0.72 0.24 0.65
21.87 54.94 22.15 0.62 0.29 0.73
19.64 54.96 23.78 0.52 0.34 0.78
17.13 54.98 25.22 0.43 0.37 0.82
14.37 54.99 26.45 0.34 0.40 0.85
11.40 55.00 27.45 0.26 0.43 0.87
8.27 55.00 28.22 0.18 0.44 0.88
5.01 55.01 28.74 0.11 0.45 0.89
1.68 55.01 29.00 0.04 0.46 0.89
-1.68 55.01 29.00 -0.04 0.45 0.89
-5.01 55.01 28.74 -0.11 0.45 0.89
-8.27 55.00 28.22 -0.18 0.43 0.88
-11.40 54.99 27.45 -0.26 0.41 0.87
-14.37 54.98 26.45 -0.34 0.39 0.86
-17.13 54.97 25.22 -0.43 0.36 0.83
-19.65 54.95 23.78 -0.52 0.32 0.79
-21.87 54.94 22.15 -0.62 0.27 0.73
-23.77 54.92 20.36 -0.72 0.22 0.65
-25.32 54.89 18.42 -0.82 0.16 0.55
-26.49 54.87 16.37 -0.90 0.11 0.41
-27.26 54.85 14.23 -0.97 0.06 0.25
-27.62 54.83 12.04 -1.00 0.01 0.07
-27.56 54.82 9.84 -0.99 -0.02 -0.12
-27.08 54.81 7.66 -0.95 -0.03 -0.30
-26.20 54.82 5.55 -0.89 -0.03 -0.46
-24.92 54.82 3.52 -0.81 -0.02 -0.59
-23.27 54.83 1.62 -0.71 0.00 -0.70
23.26 56.88 1.57 0.70 -0.03 -0.71
24.91 56.88 3.40 0.79 -0.05 -0.60
26.19 56.87 5.34 0.88 -0.06 -0.47
27.08 56.87 7.36 0.95 -0.06 -0.31
27.56 56.88 9.45 0.99 -0.03 -0.12
27.62 56.90 11.56 1.00 0.02 0.07
27.26 56.93 13.66 0.96 0.09 0.26
26.48 56.96 15.71 0.89 0.16 0.42
25.31 56.99 17.67 0.80 0.24 0.55
23.76 57.02 19.52 0.69 0.31 0.65
21.85 57.04 21.24 0.59 0.37 0.72
19.63 57.07 22.79 0.49 0.42 0.76
17.12 57.08 24.16 0.40 0.46 0.79
14.36 57.09 25.33 0.31 0.49 0.81
11.39 57.10 26.29 0.23 0.52 0.82
8.26 57.11 27.02 0.16 0.54 0.83
5.00 57.11 27.52 0.10 0.55 0.83
1.68 57.12 27.77 0.03 0.55 0.83
-1.68 57.12 27.77 -0.03 0.55 0.84
-5.00 57.11 27.52 -0.10 0.54 0.84
-8.26 57.11 27.03 -0.16 0.53 0.83
-11.39 57.10 26.30 -0.24 0.51 0.83
-14.36 57.09 25.34 -0.31 0.48 0.82
-17.12 57.07 24.16 -0.40 0.44 0.80
-19.63 57.06 22.79 -0.49 0.40 0.77
-21.86 57.03 21.24 -0.59 0.35 0.73
-23.76 57.01 19.52 -0.70 0.28 0.66
-25.31 56.98 17.67 -0.80 0.21 0.56
-26.48 56.95 15.71 -0.89 0.14 0.42
-27.26 56.93 13.66 -0.96 0.07 0.26
-27.62 56.90 11.56 -1.00 0.02 0.07
-27.56 56.89 9.45 -0.99 -0.02 -0.12
-27.08 56.88 7.36 -0.95 -0.04 -0.31
-26.19 56.88 5.34 -0.88 -0.04 -0.47
-24.91 56.89 3.40 -0.80 -0.03 -0.61
-23.26 56.90 1.57 -0.70 -0.00 -0.71
23.25 58.95 1.52 0.68 -0.03 -0.73
24.91 58.94 3.24 0.78 -0.06 -0.62
26.19 58.94 5.08 0.87 -0.07 -0.49
27.08 58.94 7.01 0.94 -0.07 -0.32
27.56 58.95 8.99 0.99 -0.03 -0.13
27.62 58.97 10.99 1.00 0.02 0.07
27.26 59.01 12.98 0.96 0.10 0.27
26.48 59.04 14.92 0.88 0.19 0.44
25.30 59.07 16.78 0.78 0.27 0.57
23.75 59.11 18.53 0.67 0.35 0.66
21.84 59.13 20.15 0.56 0.41 0.72
19.62 59.15 21.62 0.46 0.47 0.76
17.11 59.17 22.91 0.37 0.51 0.78
14.35 59.18 24.02 0.29 0.54 0.79
11.39 59.19 24.93 0.22 0.56 0.80
8.25 59.20 25.62 0.15 0.58 0.80
5.00 59.20 26.08 0.09 0.59 0.80
1.68 59.20 26.32 0.03 0.59 0.81
-1.68 59.20 26.32 -0.03 0.59 0.81
-5.00 59.20 26.08 -0.09 0.58 0.81
-8.25 59.19 25.62 -0.15 0.57 0.81
-11.39 59.19 24.93 -0.22 0.55 0.81
-14.35 59.17 24.02 -0.29 0.52 0.80
-17.11 59.16 22.92 -0.37 0.49 0.79
-19.62 59.14 21.62 -0.46 0.44 0.77
-21.84 59.12 20.15 -0.57 0.39 0.73
-23.75 59.09 18.53 -0.67 0.32 0.67
-25.30 59.06 16.78 -0.78 0.25 0.57
-26.48 59.03 14.92 -0.88 0.17 0.44
-27.26 59.00 12.98 -0.96 0.09 0.27
-27.62 58.97 10.99 -1.00 0.02 0.07
-27.56 58.95 8.99 -0.99 -0.03 -0.13
-27.08 58.95 7.01 -0.95 -0.05 -0.32
-26.19 58.95 5.08 -0.87 -0.05 -0.49
-24.91 58.95 3.24 -0.78 -0.03 -0.62
-23.25 58.97 1.52 -0.68 0.00 -0.73
